675917.64 9587496.50 -7.70
675912.56 9587501.26 -7.62
675914.77 9587712.50 -7.47
675918.53 9586909.50 -7.25
675909.39 9586918.21 -7.02
675913.62 9586913.53 -7.02
675905.62 9586923.87 -6.87
675916.33 9587201.76 -6.72
675911.77 9587206.73 -6.65
675907.16 9587211.64 -6.65
675902.45 9587216.28 -6.57
675901.57 9586929.73 -6.57
675897.96 9587221.13 -6.50
675896.84 9586934.87 -6.50
675933.03 9587180.19 -8.07
675936.54 9587174.45 -8.00
675942.28 9587166.33 -7.92
675929.24 9587185.96 -7.70
675922.06 9587491.49 -7.62
675931.75 9587477.39 -7.62
675926.02 9587486.00 -7.55
675926.72 9587703.74 -7.47
675935.98 9587471.96 -7.47
675932.30 9587700.46 -7.40
675920.99 9587705.70 -7.40
675925.01 9587191.29 -7.32
675937.22 9587695.82 -7.25
675923.50 9586905.41 -7.17
675928.05 9586900.93 -7.02
675940.72 9587467.28 -6.95
675941.61 9587690.79 -6.95
675920.73 9587196.66 -6.95
675932.44 9586896.16 -6.95
675936.61 9586891.03 -6.87
675941.36 9586886.19 -6.87
675951.30 9587156.71 -8.07
675956.04 9587152.54 -8.00
675946.69 9587161.25 -8.00
675960.63 9587148.24 -7.55
675967.68 9587672.84 -7.40
675961.91 9587675.70 -7.25
675956.09 9587678.37 -6.95
675945.62 9587685.69 -6.95
675950.50 9587681.42 -6.87
675965.19 9587143.82 -6.80
675945.91 9586881.62 -6.80
675945.32 9587462.78 -6.72
675968.05 9587442.54 -6.65
675950.19 9587457.96 -6.65
675950.17 9586877.02 -6.65
675957.97 9587451.77 -6.57
675963.02 9587447.24 -6.57
675954.49 9586871.91 -6.42
675969.55 9587139.30 -6.35
675959.01 9586866.74 -6.12
675963.33 9586861.70 -5.90
675967.49 9586856.59 -5.82
675992.55 9587412.06 -7.47
675988.48 9587416.81 -7.40
675973.14 9587669.04 -7.17
675985.27 9587422.21 -7.10
675979.49 9587661.05 -6.95
675973.16 9587438.07 -6.87
675981.96 9587427.78 -6.87
675978.04 9587433.31 -6.80
675994.80 9587651.58 -6.72
675988.56 9587653.14 -6.72
675983.28 9587655.89 -6.72
675986.35 9587120.57 -6.65
675994.74 9587110.80 -6.57
675990.65 9587115.78 -6.57
675982.13 9587125.18 -6.50
675977.92 9587129.89 -6.35
675973.67 9587134.54 -6.20
675971.74 9586851.42 -5.52
675975.97 9586846.43 -5.37
675980.13 9586841.37 -5.22
675984.47 9586836.36 -5.15
675988.96 9586831.36 -5.07
675993.76 9586826.15 -4.92
676015.97 9587385.05 -8.45
676020.18 9587379.93 -8.45
676012.12 9587390.74 -8.00
676008.79 9587396.05 -7.85
676005.19 9587401.17 -7.55
676000.41 9587405.85 -7.55
676013.15 9587089.39 -7.17
676017.47 9587084.82 -7.02
676018.54 9587632.45 -6.80
676000.65 9587648.43 -6.72
676008.89 9587093.95 -6.72
676004.76 9587098.68 -6.72
676013.46 9587636.99 -6.65
676008.55 9587641.75 -6.57
676000.68 9587103.58 -6.57
676037.98 9587359.67 -8.97
676042.30 9587354.04 -8.90
676029.47 9587370.06 -8.75
676034.00 9587365.19 -8.75
676024.70 9587375.10 -8.67
676041.65 9587612.09 -8.37
676036.62 9587616.59 -8.30
676031.53 9587621.11 -8.30
676026.49 9587625.74 -8.07
676032.63 9587069.50 -7.17
676039.56 9587063.09 -7.10
676043.86 9587058.84 -7.02
676028.06 9587073.65 -6.87
676021.68 9587080.14 -6.87
676047.57 9587348.96 -7.85
676068.58 9587598.18 -7.77
676047.11 9587608.31 -7.77
676062.09 9587600.53 -7.47
676052.94 9587604.85 -7.47
676069.25 9587327.76 -7.47
676053.38 9587344.89 -7.32
676064.83 9587333.25 -7.10
676047.95 9587054.36 -7.10
676058.30 9587340.74 -7.02
676051.86 9587049.76 -6.95
676068.82 9587026.39 -6.87
676060.16 9587037.78 -6.80
676056.81 9587042.75 -6.80
676064.24 9587032.12 -6.72
676093.03 9587587.32 -8.37
676075.58 9587319.70 -8.07
676087.16 9587590.94 -8.00
676081.13 9587593.76 -8.00
676074.97 9587596.03 -8.00
676080.31 9587315.27 -8.00
676085.83 9587311.19 -7.92
676091.12 9587306.26 -7.32
676094.97 9587300.16 -6.87
676073.73 9587021.21 -6.87
676081.39 9587013.76 -6.80
676086.56 9587008.76 -6.72
676091.98 9587004.29 -6.35
676111.05 9587571.02 -8.90
676106.17 9587575.84 -8.82
676118.45 9587563.70 -8.67
676101.16 9587580.70 -8.67
676119.71 9587277.97 -7.85
676113.57 9587281.16 -7.62
676107.68 9587284.75 -7.40
676102.35 9587289.07 -7.10
676098.27 9587294.35 -6.87
676096.88 9586998.92 -5.82
676101.59 9586993.55 -5.15
676106.71 9586988.87 -4.85
676112.22 9586985.06 -4.62
676118.28 9586982.19 -4.17
676143.20 9587545.58 -9.35
676138.12 9587550.27 -9.12
676143.00 9587251.54 -8.75
676139.21 9587257.28 -8.67
676132.73 9587554.69 -8.60
676134.07 9587265.78 -8.45
676123.97 9587559.81 -8.37
676130.50 9587271.23 -8.22
676125.84 9587275.40 -8.00
676126.77 9586976.73 -3.05
676131.51 9586971.52 -2.84
676135.58 9586966.09 -2.30
676160.40 9587526.09 -9.05
676167.72 9587528.58 -8.97
676158.65 9587532.29 -8.90
676154.95 9587240.07 -8.90
676153.08 9587535.93 -8.82
676148.09 9587540.74 -8.82
676149.97 9587244.48 -8.75
676159.56 9587234.87 -8.75
676164.24 9587229.52 -8.67
676165.63 9587533.64 -8.45
676168.97 9587224.76 -8.45
676169.49 9587538.83 -8.30
676184.52 9587212.63 -10.32
676188.03 9587207.39 -9.80
676179.65 9587217.07 -9.57
676191.73 9587202.23 -9.35
676174.19 9587220.74 -8.97
676179.70 9587550.81 -8.97
676173.95 9587526.84 -8.90
676179.39 9587523.26 -8.90
676184.05 9587555.77 -8.52
676175.66 9587546.12 -8.45
676184.07 9587518.02 -8.15
676188.56 9587561.04 -7.92
676188.35 9587512.62 -7.85
676192.47 9587507.34 -7.55
676192.79 9587566.09 -7.47
676202.66 9587583.90 -9.72
676206.06 9587590.38 -9.42
676209.79 9587596.57 -9.12
676196.32 9587197.56 -8.75
676213.38 9587602.52 -8.67
676201.31 9587193.05 -8.45
676205.85 9587187.91 -8.30
676216.43 9587608.64 -8.15
676219.15 9587614.77 -7.85
676199.47 9587577.66 -7.77
676210.32 9587182.51 -7.70
676202.12 9587499.11 -7.55
676196.98 9587502.57 -7.55
676208.15 9587497.53 -7.47
676196.43 9587571.57 -7.40
676214.33 9587496.85 -7.40
676218.20 9587172.06 -6.95
676214.55 9587177.53 -6.87
676241.94 9587667.19 -9.27
676224.77 9587627.77 -9.20
676244.57 9587673.09 -9.05
676227.77 9587634.39 -8.90
676230.51 9587640.36 -8.37
676245.04 9587490.82 -8.30
676238.54 9587495.32 -8.22
676233.33 9587496.40 -8.15
676232.85 9587646.11 -7.92
676228.09 9587496.67 -7.92
676221.88 9587621.15 -7.85
676239.44 9587661.24 -7.70
676235.43 9587652.10 -7.55
676220.45 9587496.67 -7.47
676222.79 9587166.91 -5.97
676227.24 9587161.62 -5.30
676231.36 9587155.96 -4.55
676235.22 9587150.59 -3.72
676238.48 9587145.33 -2.90
676241.61 9587139.90 -2.60
676265.22 9587719.71 -9.20
676262.44 9587713.75 -9.12
676268.10 9587725.64 -8.97
676266.36 9587462.26 -8.82
676247.25 9587679.51 -8.60
676262.51 9587467.28 -8.52
676259.02 9587472.39 -8.22
676249.83 9587686.30 -8.07
676255.70 9587477.76 -8.07
676252.31 9587483.34 -8.07
676259.37 9587708.01 -8.00
676253.89 9587695.95 -7.77
676256.42 9587701.95 -7.70
676290.75 9587767.88 -9.12
676287.32 9587759.21 -9.12
676274.51 9587452.37 -8.90
676270.30 9587457.36 -8.82
676293.31 9587773.64 -8.75
676279.29 9587447.50 -8.75
676286.45 9587440.82 -8.52
676271.29 9587731.06 -8.30
676291.13 9587436.65 -8.22
676284.48 9587753.36 -8.07
676274.45 9587736.49 -7.77
676277.57 9587742.06 -7.32
676280.94 9587747.69 -7.25
676310.15 9587818.77 -8.97
676312.69 9587827.40 -8.90
676314.87 9587832.88 -8.82
676318.85 9587844.71 -8.75
676316.84 9587838.60 -8.75
676308.53 9587812.79 -8.37
676295.95 9587779.37 -8.22
676295.75 9587432.26 -7.77
676298.25 9587785.16 -7.70
676313.98 9587413.92 -7.55
676309.08 9587418.00 -7.55
676304.45 9587422.48 -7.47
676300.17 9587427.41 -7.47
676306.63 9587806.86 -7.40
676300.53 9587791.26 -7.32
676319.17 9587410.34 -7.32
676304.17 9587800.78 -7.17
676334.41 9587892.13 -8.67
676331.79 9587886.70 -8.67
676343.88 9587393.11 -8.60
676339.69 9587397.80 -8.52
676320.83 9587850.76 -8.45
676337.00 9587897.22 -8.37
676323.03 9587856.48 -8.07
676339.53 9587902.44 -8.07
676341.81 9587907.81 -7.70
676329.87 9587880.66 -7.62
676325.18 9587862.15 -7.62
676334.91 9587401.65 -7.62
676343.64 9587913.27 -7.40
676328.47 9587874.30 -7.32
676327.24 9587867.97 -7.32
676324.52 9587407.03 -6.95
676329.76 9587404.37 -6.65
676361.17 9587950.18 -8.90
676357.93 9587943.62 -8.90
676347.58 9587388.30 -8.67
676364.13 9587956.78 -8.45
676354.89 9587937.76 -8.30
676351.87 9587384.28 -8.22
676349.17 9587926.97 -8.15
676351.83 9587932.42 -8.07
676358.99 9587379.14 -7.92
676366.62 9587962.70 -7.77
676368.95 9587968.39 -7.55
676346.91 9587921.43 -7.55
676363.96 9587375.81 -7.40
676369.00 9587372.88 -7.25
676382.35 9587993.60 -8.97
676379.40 9587988.45 -8.97
676376.25 9587983.10 -8.90
676385.14 9587998.53 -8.67
676388.27 9588004.08 -8.30
676391.87 9588009.83 -8.00
676372.93 9587977.39 -8.00
676379.61 9587367.15 -7.10
676374.32 9587370.12 -7.10
676384.87 9587364.25 -6.72
676389.93 9587361.16 -5.07
676394.87 9587357.64 -4.55
676407.80 9588040.38 -9.12
676405.43 9588034.82 -9.05
676402.81 9588029.32 -8.67
676410.10 9588046.01 -8.67
676413.04 9588051.45 -8.07
676395.31 9588015.48 -8.07
676398.44 9588021.20 -7.77
676416.15 9588056.57 -7.70
676400.13 9587354.80 -3.50
676405.38 9587352.64 -2.60
676410.58 9587350.33 -2.18
676414.87 9587346.81 -1.66
676417.64 9587341.41 -0.74
676429.68 9588080.38 -9.35
676427.53 9588074.73 -9.35
676431.29 9588085.92 -8.97
676433.22 9588091.44 -8.67
676435.56 9588097.27 -8.37
676445.02 9588117.78 -8.30
676438.19 9588103.18 -8.07
676424.66 9588069.24 -8.07
676442.17 9588111.88 -8.00
676421.19 9588064.01 -7.70
676420.66 9587337.06 0.38
676429.09 9587341.42 0.78
676426.22 9587336.38 1.06
676467.76 9588165.45 -9.80
676451.39 9588132.99 -9.72
676449.01 9588126.49 -9.57
676454.08 9588139.15 -9.35
676456.71 9588144.95 -8.90
676464.53 9588159.31 -8.82
676459.63 9588150.54 -8.52
676486.29 9588205.14 -9.87
676489.17 9588211.16 -9.80
676492.08 9588216.94 -9.72
676470.71 9588171.34 -9.50
676494.99 9588222.42 -9.35
676473.64 9588177.30 -9.05
676483.58 9588199.16 -8.60
676476.63 9588183.58 -8.52
676480.72 9588193.05 -8.37
676512.69 9588267.48 -9.87
676510.13 9588261.39 -9.87
676517.20 9588279.11 -9.80
676519.30 9588284.97 -9.72
676515.02 9588273.33 -9.72
676507.82 9588255.36 -9.72
676497.81 9588228.40 -8.67
676500.45 9588234.31 -8.07
676505.74 9588249.28 -7.92
676502.74 9588240.17 -7.70
676526.87 9588309.20 -9.80
676538.54 9588339.75 -9.72
676528.70 9588315.46 -9.72
676524.88 9588302.89 -9.72
676523.00 9588296.94 -9.72
676521.28 9588290.89 -9.72
676541.51 9588345.71 -9.50
676530.55 9588321.47 -9.42
676544.01 9588351.59 -8.90
676532.85 9588327.64 -8.82
676535.70 9588333.67 -8.45
676565.09 9588397.55 -10.32
676562.77 9588392.24 -10.32
676568.98 9588408.64 -10.17
676566.89 9588403.03 -10.17
676560.20 9588386.82 -9.12
676546.16 9588357.22 -8.37
676557.66 9588381.45 -8.07
676548.16 9588362.77 -8.00
676555.08 9588376.12 -7.85
676550.66 9588368.22 -7.85
676571.22 9588414.19 -10.02
676573.50 9588419.70 -9.80
676578.21 9588433.30 -9.42
676576.54 9588427.76 -9.42
676580.26 9588439.09 -9.20
676582.69 9588444.92 -8.90
676595.15 9588469.54 -8.75
676585.32 9588450.61 -8.67
676592.31 9588464.28 -8.52
676589.48 9588458.99 -8.30
676605.39 9588492.30 -10.17
676601.22 9588483.55 -10.02
676608.39 9588498.47 -9.95
676611.74 9588504.25 -9.57
676615.11 9588509.87 -9.35
676599.06 9588477.91 -9.20
676618.91 9588515.50 -8.97
676638.40 9588561.05 -10.70
676641.09 9588566.75 -10.47
676643.77 9588572.55 -10.25
676636.07 9588555.34 -9.57
676622.39 9588521.41 -8.67
676625.61 9588527.47 -8.45
676633.84 9588549.25 -8.30
676631.61 9588542.85 -8.30
676629.74 9588536.44 -8.22
676663.28 9588632.85 -11.30
676664.95 9588639.37 -11.07
676661.76 9588626.74 -11.07
676657.03 9588612.27 -10.92
676659.15 9588618.08 -10.70
676666.55 9588645.91 -10.62
676655.40 9588606.30 -10.47
676668.30 9588652.62 -10.32
676653.89 9588600.17 -9.87
676646.50 9588578.60 -9.80
676652.14 9588593.99 -9.57
676649.12 9588584.88 -9.50
676694.41 9588709.19 -11.00
676692.90 9588702.99 -10.55
676690.64 9588697.22 -10.10
676670.39 9588659.53 -10.10
676687.71 9588691.87 -9.80
676684.76 9588686.68 -9.72
676672.78 9588666.07 -9.72
676681.40 9588680.98 -9.50
676675.76 9588672.28 -9.50
676699.92 9588728.77 -11.22
676697.50 9588722.46 -11.15
676695.65 9588715.79 -11.07
676702.86 9588735.15 -10.77
676716.89 9588772.57 -10.25
676705.31 9588741.41 -10.17
676714.29 9588766.20 -9.95
676711.87 9588759.83 -9.80
676709.67 9588753.84 -9.80
676707.49 9588747.65 -9.80
676738.97 9588835.58 -11.45
676741.76 9588841.78 -11.30
676736.46 9588829.43 -11.15
676744.21 9588848.21 -10.92
676728.26 9588807.04 -10.17
676726.66 9588800.48 -10.17
676733.84 9588823.13 -10.10
676730.20 9588813.45 -10.02
676725.22 9588794.00 -10.02
676720.95 9588781.44 -10.02
676723.46 9588787.65 -9.95
676769.13 9588925.47 -12.05
676751.04 9588873.05 -12.05
676752.92 9588879.05 -11.75
676754.93 9588885.10 -11.52
676757.21 9588891.22 -11.22
676749.25 9588867.11 -11.07
676759.37 9588897.49 -10.92
676747.55 9588860.87 -10.77
676745.91 9588854.56 -10.77
676766.78 9588919.36 -10.70
676761.25 9588903.96 -10.55
676764.59 9588913.32 -10.47
676792.63 9588981.39 -13.10
676771.88 9588931.51 -12.87
676794.92 9588987.51 -12.72
676774.42 9588937.19 -12.65
676776.59 9588942.76 -12.35
676790.15 9588975.21 -12.27
676778.96 9588948.38 -11.97
676787.32 9588969.25 -11.90
676781.38 9588954.12 -11.75
676784.69 9588963.30 -11.67
676803.43 9589013.17 -13.85
676806.35 9589019.17 -13.70
676809.09 9589025.11 -13.32
676811.50 9589031.24 -13.02
676813.42 9589037.62 -12.80
676816.55 9589047.15 -12.65
676819.00 9589053.36 -12.57
676796.59 9588993.81 -12.27
676800.72 9589006.79 -12.20
676798.41 9589000.27 -11.90
676835.03 9589093.25 -14.15
676832.87 9589087.43 -14.15
676837.04 9589099.36 -13.92
676830.82 9589081.25 -13.77
676839.03 9589106.05 -13.62
676829.14 9589075.29 -13.55
676844.82 9589123.98 -13.47
676827.14 9589069.97 -13.40
676841.12 9589112.31 -13.25
676842.97 9589118.14 -13.17
676824.54 9589064.90 -13.17
676821.90 9589059.43 -12.80
676869.12 9589222.82 -15.12
676850.48 9589141.30 -14.45
676857.77 9589167.99 -14.37
676852.99 9589148.39 -14.37
676848.03 9589133.97 -14.37
676856.07 9589161.48 -14.30
676854.79 9589154.95 -14.30
676867.71 9589217.40 -14.15
676863.27 9589198.65 -14.15
676860.16 9589177.89 -14.15
676864.78 9589205.28 -14.07
676862.01 9589192.42 -14.00
676861.31 9589186.73 -14.00
676866.19 9589211.53 -13.92
676870.91 9589228.43 -15.57
676894.03 9589284.27 -15.42
676873.48 9589234.34 -15.12
676892.13 9589278.61 -14.90
676876.41 9589240.27 -14.82
676879.08 9589246.56 -14.37
676881.14 9589252.88 -13.77
676890.06 9589272.86 -13.40
676883.60 9589258.57 -13.32
676887.59 9589267.24 -13.17
676895.78 9589289.97 -15.12
676897.54 9589296.00 -14.52
676914.53 9589339.16 -14.00
676899.52 9589301.49 -14.00
676917.13 9589345.12 -13.62
676911.95 9589333.24 -13.55
676901.49 9589306.88 -13.55
676903.42 9589312.02 -13.17
676909.58 9589327.46 -12.95
676905.42 9589316.85 -12.87
676907.48 9589321.94 -12.80
676941.13 9589444.62 -15.57
676943.84 9589450.44 -15.27
676924.31 9589373.83 -15.05
676923.78 9589367.04 -14.97
676925.32 9589380.44 -14.75
676927.20 9589386.65 -14.52
676938.78 9589438.78 -14.37
676922.50 9589360.22 -13.85
676928.66 9589392.86 -13.77
676920.49 9589353.83 -13.40
676930.07 9589399.10 -13.02
676937.26 9589432.55 -12.87
676931.38 9589405.29 -12.50
676935.69 9589426.31 -12.27
676932.23 9589411.55 -12.20
676933.34 9589417.68 -12.05
676946.31 9589459.15 -15.20
676948.49 9589465.14 -14.75
676950.95 9589470.92 -14.37
676953.65 9589476.32 -13.85
676969.51 9589503.66 -13.32
676956.51 9589481.69 -13.17
676966.96 9589498.27 -12.87
676959.83 9589487.32 -12.80
676963.65 9589492.80 -12.72
676975.87 9589516.00 -15.05
676973.21 9589511.34 -14.90
676980.69 9589526.43 -14.67
676978.62 9589520.98 -14.60
676982.42 9589532.02 -14.30
676984.70 9589537.70 -13.70
676986.93 9589543.12 -13.10
676988.81 9589548.11 -12.65
676994.71 9589576.25 -12.57
676990.29 9589553.08 -12.35
676993.12 9589570.45 -12.27
676991.20 9589558.59 -12.20
676991.90 9589564.44 -12.12
676998.61 9589586.97 -14.07
676996.52 9589581.67 -13.92
677002.52 9589594.88 -13.85
677004.96 9589600.11 -13.62
677006.64 9589605.45 -13.17
677008.29 9589610.77 -12.65
677009.74 9589616.04 -12.12
677010.95 9589621.04 -11.82
677011.94 9589625.95 -11.60
677013.20 9589630.84 -11.30
677014.84 9589635.69 -11.07
677019.41 9589642.10 -10.85
677031.99 9589672.53 -13.85
677033.96 9589677.90 -13.55
677029.96 9589667.02 -13.47
677027.64 9589678.78 -13.40
677035.90 9589683.37 -13.32
677029.95 9589683.32 -13.25
677025.29 9589674.30 -13.25
677032.28 9589688.15 -13.17
677040.62 9589697.59 -13.02
677037.72 9589689.08 -13.02
677034.16 9589693.05 -12.80
677042.52 9589703.08 -12.80
677043.92 9589708.78 -12.65
677035.63 9589697.96 -12.65
677027.82 9589661.54 -11.67
677023.28 9589669.45 -11.67
677025.75 9589656.11 -11.22
677022.12 9589664.34 -11.07
677023.22 9589650.57 -11.00
677021.29 9589659.08 -10.77
677045.92 9589714.79 -12.42
677051.86 9589727.51 -12.42
677064.37 9589769.27 -12.35
677049.59 9589723.05 -12.35
677062.40 9589763.37 -12.35
677060.59 9589744.75 -12.27
677066.52 9589775.35 -12.27
677054.66 9589740.38 -12.27
677053.11 9589734.68 -12.27
677057.25 9589749.33 -12.20
677060.25 9589757.58 -12.20
677065.21 9589750.41 -12.12
677068.34 9589781.43 -11.90
677069.94 9589787.60 -11.37
677090.99 9589839.39 -12.12
677077.03 9589805.42 -12.12
677092.47 9589844.97 -11.97
677079.60 9589811.25 -11.97
677093.65 9589850.91 -11.82
677081.90 9589817.00 -11.82
677084.61 9589822.78 -11.60
677074.07 9589799.36 -11.52
677089.22 9589834.02 -11.22
677087.13 9589828.57 -11.22
677071.68 9589793.50 -11.15
677095.16 9589857.32 -11.07
677105.85 9589890.76 -12.57
677107.08 9589896.26 -12.12
677111.96 9589910.98 -12.05
677109.68 9589905.02 -12.05
677114.19 9589916.39 -11.97
677116.35 9589921.61 -11.45
677104.65 9589885.14 -11.30
677118.32 9589926.80 -11.07
677097.49 9589864.17 -10.40
677103.32 9589879.67 -10.02
677100.32 9589870.83 -10.02
677125.93 9589945.35 -11.82
677127.99 9589950.82 -11.45
677130.31 9589956.10 -11.00
677123.75 9589939.72 -10.92
677120.53 9589931.76 -10.70
677133.39 9589961.35 -10.55
677136.67 9589966.59 -10.10
677139.79 9589971.62 -9.80
677142.48 9589976.84 -9.65
677144.39 9589982.28 -9.57
677152.55 9590008.75 -11.15
677153.99 9590014.78 -10.92
677150.84 9590002.81 -10.85
677155.54 9590021.08 -10.70
677161.27 9590040.09 -10.47
677159.27 9590033.90 -10.40
677157.50 9590027.41 -10.25
677163.63 9590046.08 -10.17
677168.08 9590054.72 -10.02
677148.79 9589996.73 -9.95
677146.83 9589990.73 -9.72
677184.89 9590109.12 -10.25
677170.27 9590060.52 -10.10
677187.78 9590114.50 -9.95
677172.73 9590069.51 -9.87
677182.55 9590103.37 -9.65
677178.81 9590091.52 -9.65
677176.99 9590085.22 -9.57
677174.55 9590075.67 -9.57
677190.59 9590119.82 -9.50
677180.71 9590097.41 -9.35
677192.98 9590125.24 -9.20
677194.58 9590130.90 -9.05
677203.72 9590161.14 -10.40
677201.79 9590155.23 -10.32
677205.77 9590166.90 -9.95
677200.36 9590149.36 -9.50
677208.74 9590172.55 -9.42
677215.05 9590183.25 -9.05
677211.92 9590177.80 -9.05
677198.48 9590143.56 -9.05
677218.49 9590188.75 -8.97
677196.30 9590137.16 -8.97
677243.91 9590261.75 -10.25
677240.01 9590245.67 -9.95
677244.76 9590267.97 -9.95
677242.91 9590256.34 -9.95
677226.86 9590209.50 -9.95
677241.54 9590251.25 -9.87
677229.28 9590215.43 -9.80
677244.33 9590274.66 -9.65
677225.54 9590203.23 -9.57
677238.61 9590239.59 -9.27
677244.09 9590281.52 -9.27
677223.45 9590197.11 -9.27
677232.13 9590221.54 -9.12
677244.48 9590288.13 -8.90
677237.06 9590233.38 -8.75
677235.05 9590227.45 -8.75
677253.56 9590321.91 -8.76
677251.76 9590316.32 -8.61
677267.41 9590354.56 -8.38
677255.35 9590327.89 -8.38
677261.16 9590343.65 -8.31
677245.66 9590294.57 -8.30
677258.35 9590337.42 -8.16
677250.30 9590310.64 -8.08
677248.77 9590304.42 -8.07
677264.27 9590349.30 -7.93
677289.01 9590409.42 -8.98
677287.05 9590403.68 -8.98
677274.75 9590368.25 -8.91
677270.36 9590359.73 -8.83
677291.20 9590414.91 -8.68
677285.38 9590397.48 -8.68
677277.48 9590373.82 -8.68
677293.95 9590420.74 -8.38
677279.85 9590379.45 -8.16
677283.09 9590388.32 -8.08
677296.50 9590426.32 -8.01
677309.82 9590457.41 -7.93
677313.23 9590465.62 -7.71
677298.79 9590431.94 -7.71
677307.32 9590451.80 -7.63
677304.53 9590446.36 -7.63
677302.14 9590440.70 -7.63
677315.58 9590473.91 -7.56
677318.00 9590481.67 -7.41
677335.42 9590527.77 -9.06
677333.73 9590522.27 -9.06
677343.04 9590545.37 -8.76
677336.92 9590533.42 -8.76
677331.83 9590516.30 -8.76
677327.77 9590507.32 -8.76
677340.37 9590540.83 -8.68
677324.87 9590501.65 -8.68
677322.40 9590495.89 -7.86
677320.30 9590490.08 -7.33
677360.47 9590581.82 -8.98
677345.51 9590550.58 -8.68
677363.15 9590587.11 -8.61
677365.73 9590592.33 -8.23
677348.16 9590555.98 -8.23
677358.04 9590576.33 -8.16
677368.29 9590597.29 -7.86
677350.51 9590561.06 -7.78
677354.03 9590568.53 -7.71
677378.11 9590632.88 -9.43
677385.19 9590657.19 -9.36
677379.14 9590638.54 -9.36
677387.91 9590663.23 -9.06
677377.06 9590627.30 -9.06
677380.55 9590644.38 -8.98
677382.54 9590650.64 -8.83
677375.69 9590621.62 -8.68
677391.14 9590668.77 -8.61
677395.13 9590673.76 -8.53
677374.59 9590615.77 -8.31
677373.17 9590609.78 -7.93
677371.74 9590604.25 -7.71
677417.50 9590691.32 -9.06
677409.48 9590686.23 -8.53
677404.89 9590682.24 -8.53
677400.04 9590678.05 -8.38
677436.00 9590703.90 -9.81
677431.14 9590699.93 -9.81
677426.01 9590696.31 -9.73
677440.47 9590708.29 -9.51
677444.06 9590712.98 -8.98
677469.37 9590789.00 -10.41
677453.99 9590741.98 -10.26
677457.71 9590753.77 -10.18
677468.71 9590782.16 -9.96
677460.14 9590759.42 -9.88
677455.63 9590747.95 -9.88
677452.27 9590735.95 -9.58
677462.89 9590764.85 -9.43
677467.58 9590776.01 -9.21
677465.64 9590770.22 -9.13
677450.47 9590729.83 -8.98
677446.59 9590718.23 -8.68
677448.54 9590723.94 -8.61
677474.57 9590821.66 -11.16
677485.55 9590844.98 -10.93
677473.07 9590815.17 -10.78
677492.04 9590855.84 -10.71
677488.85 9590850.53 -10.71
677476.82 9590828.04 -10.71
677482.54 9590839.52 -10.63
677472.40 9590808.62 -10.56
677479.63 9590833.98 -10.48
677470.45 9590795.71 -10.41
677471.54 9590802.14 -10.11
677514.71 9590889.16 -11.76
677518.98 9590893.81 -11.46
677507.33 9590879.19 -11.46
677510.93 9590884.21 -11.31
677500.31 9590868.55 -11.16
677496.80 9590863.41 -11.01
677503.81 9590873.88 -10.93
677527.56 9590903.52 -11.61
677523.36 9590898.53 -11.23
677539.59 9590921.88 -11.16
677531.58 9590908.68 -11.16
677536.70 9590916.47 -11.08
677542.70 9590927.30 -10.71
677568.00 9590976.08 -12.06
677549.19 9590938.10 -11.98
677565.05 9590970.34 -11.91
677556.58 9590952.67 -11.76
677546.01 9590932.66 -11.76
677552.22 9590943.70 -11.68
677559.37 9590958.63 -11.31
677562.15 9590964.59 -10.93
677588.27 9591012.25 -12.36
677582.21 9591000.97 -12.28
677585.41 9591006.63 -12.21
677590.65 9591017.90 -11.68
677578.77 9590995.59 -11.68
677570.84 9590981.88 -11.68
677573.80 9590987.56 -11.46
677608.08 9591040.14 -12.58
677603.82 9591035.41 -12.58
677599.70 9591030.86 -12.36
677611.75 9591045.10 -12.13
677614.95 9591050.44 -11.68
677595.63 9591026.11 -11.68
677618.03 9591055.99 -11.46
677628.88 9591072.03 -12.73
677624.69 9591066.83 -12.73
677635.47 9591079.39 -12.58
677640.20 9591083.87 -11.83
677621.04 9591061.59 -11.68
677644.68 9591088.15 -11.31
677652.30 9591097.91 -12.88
677655.80 9591103.11 -12.81
677659.92 9591108.21 -12.36
677648.70 9591092.88 -12.06
677664.31 9591113.13 -11.68
677682.36 9591134.68 -12.88
677685.84 9591139.83 -12.51
677688.78 9591145.30 -12.28
677678.34 9591129.84 -12.28
677691.77 9591150.75 -11.98
677694.96 9591156.20 -11.68
677674.29 9591125.01 -11.53
677670.49 9591120.12 -11.31
677713.87 9591185.60 -13.18
677710.82 9591179.89 -12.88
677717.20 9591191.09 -12.81
677707.48 9591174.65 -12.73
677703.81 9591169.57 -11.83
677700.26 9591164.24 -11.53
677735.89 9591216.05 -13.03
677741.32 9591223.48 -12.96
677745.07 9591228.31 -12.66
677732.03 9591211.31 -12.66
677720.71 9591196.44 -12.28
677728.14 9591206.54 -12.06
677724.37 9591201.62 -11.91
677756.31 9591243.10 -13.03
677759.86 9591248.02 -12.88
677764.01 9591252.74 -12.73
677768.49 9591257.42 -12.21
677748.73 9591233.23 -12.21
677752.59 9591238.17 -11.98
677787.96 9591277.76 -12.73
677784.04 9591273.23 -12.73
677791.82 9591282.58 -12.28
677777.59 9591266.49 -12.21
677773.09 9591261.96 -12.21
677805.82 9591302.25 -12.88
677809.37 9591307.03 -12.66
677802.51 9591297.48 -12.43
677813.23 9591311.74 -12.21
677795.69 9591287.70 -12.13
677799.19 9591292.72 -12.06
677816.71 9591316.57 -11.83
677819.86 9591321.50 -11.76
677829.10 9591339.30 -13.18
677826.14 9591334.40 -13.03
677832.61 9591343.93 -12.81
677823.55 9591329.39 -12.81
677836.52 9591348.43 -12.13
677840.16 9591352.91 -11.68
677843.24 9591357.58 -11.53
677855.62 9591376.64 -13.11
677860.66 9591383.69 -13.03
677852.26 9591372.04 -13.03
677868.54 9591392.18 -12.88
677864.38 9591388.04 -12.88
677849.20 9591367.39 -12.88
677846.22 9591362.54 -11.76
677891.22 9591417.61 -13.11
677872.79 9591396.57 -12.66
677876.92 9591401.13 -12.06
677887.28 9591412.78 -11.98
677881.19 9591405.64 -11.76
677897.30 9591425.04 -12.96
677917.86 9591448.39 -12.58
677901.44 9591429.78 -12.51
677905.47 9591434.45 -11.91
677913.96 9591443.44 -11.61
677909.74 9591438.87 -11.61
677929.50 9591462.27 -12.88
677921.73 9591453.08 -12.88
677925.49 9591457.73 -12.81
677933.64 9591466.46 -12.73
677937.87 9591470.88 -12.58
677942.17 9591475.17 -12.36
677968.21 9591498.97 -12.58
677963.50 9591494.56 -12.28
677946.46 9591479.45 -11.98
677958.40 9591490.29 -11.91
677951.02 9591483.78 -11.61
677991.73 9591524.06 -12.51
677972.48 9591503.56 -12.51
677987.37 9591519.41 -12.06
677976.47 9591508.25 -11.83
677982.81 9591514.98 -11.46
677995.94 9591528.80 -12.58
678000.31 9591533.43 -12.36
678009.54 9591542.65 -12.06
678005.03 9591537.98 -12.06
678014.02 9591547.33 -11.83
678018.41 9591551.84 -11.61
678030.50 9591562.40 -12.43
678040.18 9591569.87 -12.21
678023.08 9591556.22 -12.13
678035.33 9591566.19 -12.06
678045.10 9591573.73 -11.76
678050.02 9591577.75 -11.91
678056.81 9591584.20 -11.83
678068.49 9591598.67 -11.76
678064.39 9591593.81 -11.61
678060.78 9591588.94 -11.61
678076.58 9591608.36 -12.06
678072.62 9591603.45 -12.06
678084.15 9591618.17 -11.83
678080.56 9591613.11 -11.76
678089.60 9591625.94 -11.61
678101.40 9591640.18 -11.98
678097.18 9591635.54 -11.91
678113.55 9591650.04 -11.76
678108.73 9591646.15 -11.76
678118.54 9591654.06 -11.46
678137.00 9591671.53 -11.61
678125.63 9591660.76 -11.61
678141.89 9591675.33 -11.53
678132.35 9591667.42 -11.38
678146.91 9591679.31 -11.61
678154.52 9591685.39 -11.53
678164.68 9591693.37 -11.46
678169.52 9591697.54 -11.38
678159.50 9591689.32 -11.38
678174.30 9591701.67 -11.38
678194.17 9591722.20 -11.31
678181.40 9591707.96 -11.31
678187.94 9591715.00 -11.23
678218.12 9591750.55 -11.31
678210.07 9591741.02 -11.31
678213.95 9591745.81 -11.23
678205.91 9591736.41 -11.23
678202.00 9591731.70 -11.23
678198.17 9591727.00 -11.16
678238.51 9591770.32 -11.23
678231.65 9591763.98 -11.23
678226.96 9591759.78 -11.23
678222.45 9591755.33 -11.23
678244.49 9591777.23 -11.08
678269.99 9591804.49 -11.08
678264.92 9591800.16 -11.08
678260.39 9591795.62 -11.01
678256.60 9591790.89 -10.93
678250.35 9591784.05 -10.86
678293.54 9591825.95 -11.08
678279.61 9591813.07 -11.08
678274.80 9591808.85 -11.08
678289.11 9591821.51 -11.01
678284.51 9591817.15 -11.01
678317.92 9591851.31 -11.01
678313.97 9591846.83 -11.01
678308.35 9591840.43 -11.01
678300.32 9591832.28 -11.01
678304.55 9591836.46 -10.93
678336.61 9591871.56 -11.01
678321.89 9591855.85 -11.01
678340.80 9591875.84 -10.93
678332.47 9591867.01 -10.93
678328.10 9591862.63 -10.93
678345.31 9591879.75 -11.01
678365.39 9591897.95 -10.93
678356.33 9591889.94 -10.93
678369.66 9591902.11 -10.86
678360.67 9591894.10 -10.86
678352.08 9591885.80 -10.86
678385.29 9591916.45 -10.93
678390.54 9591919.82 -10.86
678380.35 9591912.66 -10.86
678375.86 9591908.54 -10.86
678395.71 9591923.33 -10.86
678411.71 9591936.33 -10.78
678405.14 9591930.60 -10.78
678400.58 9591926.89 -10.78
678418.72 9591941.51 -10.71
678426.09 9591946.78 -10.78
678439.54 9591954.00 -10.71
678433.93 9591951.59 -10.63
678445.23 9591956.58 -10.71
678466.82 9591968.69 -10.56
678458.44 9591964.41 -10.56
678453.09 9591961.21 -10.56
678472.45 9591971.35 -10.48
678495.04 9591986.84 -10.41
678489.95 9591983.20 -10.41
678485.41 9591979.39 -10.41
678480.48 9591975.77 -10.41
678499.97 9591990.46 -10.33
678517.86 9592001.73 -10.26
678512.46 9591998.63 -10.26
678507.18 9591995.74 -10.26
678533.38 9592012.37 -10.27
678528.57 9592008.41 -10.27
678523.40 9592004.91 -10.27
678542.71 9592020.45 -10.19
678537.74 9592016.66 -10.19
678550.76 9592025.19 -10.27
678566.08 9592033.86 -10.12
678558.78 9592029.23 -10.12
678593.58 9592061.08 -10.12
678588.87 9592057.20 -10.12
678584.44 9592053.19 -10.12
678580.28 9592049.04 -10.12
678576.15 9592044.67 -10.12
678572.44 9592040.09 -10.12
678600.84 9592066.94 -10.12
678610.70 9592073.50 -10.04
678618.20 9592078.10 -9.97
678605.79 9592070.30 -9.97
678633.35 9592088.00 -10.04
678638.31 9592091.58 -9.97
678628.18 9592084.60 -9.97
678623.15 9592081.25 -9.97
678643.40 9592095.05 -9.89
678669.77 9592115.32 -9.97
678664.95 9592111.57 -9.97
678655.82 9592103.91 -9.97
678648.50 9592098.49 -9.97
678660.31 9592107.55 -9.89
678689.89 9592129.60 -9.97
678685.00 9592125.95 -9.97
678694.74 9592133.36 -9.89
678679.82 9592122.48 -9.89
678674.86 9592118.84 -9.89
678709.31 9592144.09 -9.89
678704.48 9592140.33 -9.89
678699.56 9592136.87 -9.89
678719.91 9592154.31 -9.82
678715.79 9592150.20 -9.82
678742.41 9592173.24 -9.89
678737.63 9592169.61 -9.89
678728.28 9592162.08 -9.89
678724.10 9592158.25 -9.89
678732.95 9592165.97 -9.82
678767.79 9592194.86 -9.89
678761.24 9592188.74 -9.89
678756.69 9592184.69 -9.89
678751.98 9592180.79 -9.89
678747.27 9592176.96 -9.89
678794.78 9592213.81 -9.89
678789.21 9592211.09 -9.89
678784.08 9592207.91 -9.89
678777.08 9592202.59 -9.89
678772.41 9592198.80 -9.82
678811.11 9592222.35 -9.97
678805.68 9592219.30 -9.89
678816.26 9592226.07 -9.82
678800.25 9592216.62 -9.82
678841.29 9592243.54 -9.89
678821.23 9592229.68 -9.89
678836.09 9592240.30 -9.82
678831.02 9592236.85 -9.82
678826.06 9592233.33 -9.82
678869.31 9592261.02 -9.82
678863.82 9592257.99 -9.82
678858.53 9592254.80 -9.82
678853.64 9592251.53 -9.82
678846.45 9592246.66 -9.82
678891.05 9592272.45 -9.82
678885.47 9592269.43 -9.82
678879.84 9592266.65 -9.74
678874.50 9592263.94 -9.74
678896.25 9592275.68 -9.82
678909.79 9592287.60 -9.74
678902.93 9592281.80 -9.74
678916.62 9592293.35 -9.67
678924.98 9592302.20 -9.74
678920.83 9592297.64 -9.74
678943.22 9592319.05 -9.67
678938.25 9592315.32 -9.67
678933.77 9592310.98 -9.67
678929.46 9592306.54 -9.67
678953.22 9592326.14 -9.74
678967.98 9592337.60 -9.67
678962.99 9592333.82 -9.67
678958.01 9592329.97 -9.67
678948.29 9592322.52 -9.67
678991.84 9592351.68 -9.67
678986.41 9592348.63 -9.67
678973.10 9592341.00 -9.67
678980.99 9592345.67 -9.59
679013.13 9592363.98 -9.59
679007.82 9592360.98 -9.59
679002.29 9592358.21 -9.59
678996.99 9592355.12 -9.59
679019.67 9592369.16 -9.52
679042.87 9592381.69 -9.52
679037.81 9592378.67 -9.52
679032.61 9592376.08 -9.52
679027.32 9592373.64 -9.52
679069.53 9592395.42 -9.52
679064.09 9592392.73 -9.52
679050.78 9592386.17 -9.52
679058.64 9592390.15 -9.44
679074.78 9592398.28 -9.52
679088.78 9592408.93 -9.44
679084.20 9592405.48 -9.44
679079.64 9592401.76 -9.44
679093.57 9592411.83 -9.37
679103.75 9592416.26 -9.44
679098.70 9592414.12 -9.44
679118.39 9592424.32 -9.37
679113.42 9592421.55 -9.37
679108.66 9592418.64 -9.37
679123.44 9592426.60 -9.37
679143.10 9592436.23 -9.29
679138.06 9592433.85 -9.29
679133.11 9592431.42 -9.29
679128.32 9592428.99 -9.29
679163.11 9592446.73 -9.37
679158.09 9592444.04 -9.37
679153.08 9592441.27 -9.37
679167.98 9592449.34 -9.22
679147.99 9592438.79 -9.22
679187.20 9592460.55 -9.29
679177.78 9592454.58 -9.29
679172.90 9592451.90 -9.29
679195.08 9592468.27 -9.22
679191.20 9592464.13 -9.22
679182.63 9592457.46 -9.22
679215.94 9592488.26 -9.29
679205.15 9592478.79 -9.29
679211.58 9592484.70 -9.22
679201.09 9592474.62 -9.22
679240.64 9592497.03 -9.37
679235.09 9592495.32 -9.29
679226.52 9592492.96 -9.29
679220.63 9592491.24 -9.22
679269.40 9592508.29 -9.29
679262.11 9592504.79 -9.29
679256.62 9592502.83 -9.29
679248.56 9592499.97 -9.29
679279.67 9592513.65 -9.29
679274.65 9592510.79 -9.29
679293.88 9592522.76 -9.22
679288.93 9592520.02 -9.22
679284.03 9592517.01 -9.22
679304.13 9592528.32 -9.29
679299.14 9592525.40 -9.29
679311.10 9592533.17 -9.22
679318.43 9592537.55 -9.14
679345.08 9592554.89 -9.22
679325.99 9592542.04 -9.22
679340.19 9592551.71 -9.14
679330.82 9592545.14 -9.14
679335.46 9592548.46 -9.07
679354.54 9592561.65 -9.22
679361.73 9592566.60 -9.14
679349.79 9592558.27 -9.14
679368.42 9592571.72 -9.07
679394.61 9592589.19 -9.14
679389.74 9592586.23 -9.14
679384.87 9592583.27 -9.14
679380.17 9592580.09 -9.14
679375.34 9592576.92 -9.14
679415.17 9592599.88 -9.07
679409.83 9592597.54 -9.07
679404.56 9592594.85 -9.07
679399.50 9592592.06 -9.07
679440.90 9592613.16 -9.07
679435.93 9592610.13 -8.99
679431.03 9592607.30 -8.99
679422.98 9592603.65 -8.99
679458.31 9592622.98 -9.07
679445.93 9592616.17 -9.07
679463.66 9592625.51 -8.99
679453.34 9592620.26 -8.99
679469.06 9592627.94 -8.92
679490.52 9592641.61 -8.99
679485.60 9592638.91 -8.99
679480.91 9592635.73 -8.99
679474.11 9592630.70 -8.99
679519.19 9592654.39 -8.99
679511.54 9592650.74 -8.99
679503.95 9592647.06 -8.92
679498.74 9592644.78 -8.92
679541.81 9592666.29 -8.92
679536.66 9592663.89 -8.92
679526.47 9592658.58 -8.92
679531.42 9592661.39 -8.84
679569.12 9592682.60 -8.84
679564.18 9592679.69 -8.84
679559.29 9592676.56 -8.84
679554.35 9592673.36 -8.84
679549.36 9592670.42 -8.84
679576.88 9592686.84 -8.84
679594.33 9592696.80 -8.77
679587.15 9592692.03 -8.77
679582.04 9592689.43 -8.77
679615.51 9592711.88 -8.77
679610.33 9592709.11 -8.77
679605.54 9592705.74 -8.77
679598.93 9592700.28 -8.77
679634.58 9592719.19 -8.77
679644.91 9592723.54 -8.69
679639.79 9592721.28 -8.69
679628.86 9592717.40 -8.69
679623.29 9592715.55 -8.69
679668.86 9592739.57 -8.77
679656.73 9592731.05 -8.77
679663.98 9592736.14 -8.69
679652.13 9592727.79 -8.69
679673.75 9592742.76 -8.77
679693.12 9592754.96 -8.69
679688.51 9592751.96 -8.69
679678.64 9592745.86 -8.69
679683.46 9592749.01 -8.62
679715.63 9592768.03 -8.62
679710.49 9592765.51 -8.62
679705.38 9592762.60 -8.62
679700.52 9592759.60 -8.62
679721.28 9592770.13 -8.69
679743.19 9592783.51 -8.62
679738.58 9592780.20 -8.62
679734.15 9592776.83 -8.62
679729.23 9592773.91 -8.62
679769.77 9592800.66 -8.62
679764.89 9592797.74 -8.62
679760.15 9592794.77 -8.62
679755.17 9592791.74 -8.62
679750.25 9592788.53 -8.62
679777.24 9592805.15 -8.69
679793.35 9592816.56 -8.62
679788.91 9592812.93 -8.62
679784.40 9592809.51 -8.62
679818.14 9592832.11 -8.62
679808.05 9592826.33 -8.62
679803.08 9592823.30 -8.62
679798.19 9592819.97 -8.62
679813.14 9592829.30 -8.54
679825.83 9592836.19 -8.62
679843.87 9592850.31 -8.54
679839.40 9592846.78 -8.54
679834.87 9592843.18 -8.54
679830.26 9592839.51 -8.54
679869.37 9592863.79 -8.62
679861.33 9592860.76 -8.62
679855.84 9592858.49 -8.62
679850.73 9592855.58 -8.54
679893.86 9592873.61 -8.69
679885.75 9592869.90 -8.69
679880.36 9592867.68 -8.62
679874.96 9592865.66 -8.62
679899.54 9592875.91 -8.69
679918.10 9592889.24 -8.62
679913.52 9592885.65 -8.62
679909.07 9592882.09 -8.62
679904.63 9592878.66 -8.62
679944.33 9592907.68 -8.62
679939.60 9592904.37 -8.62
679934.90 9592900.98 -8.62
679930.04 9592897.69 -8.62
679925.33 9592894.37 -8.62
679965.69 9592923.60 -8.62
679961.26 9592919.77 -8.62
679956.30 9592916.34 -8.62
679951.53 9592912.80 -8.62
679994.95 9592943.03 -8.62
679989.94 9592940.00 -8.62
679985.06 9592937.09 -8.62
679979.87 9592934.00 -8.62
679974.93 9592930.59 -8.62
679970.31 9592927.17 -8.62
680020.18 9592957.76 -8.62
680015.21 9592954.47 -8.62
680010.10 9592951.63 -8.62
680004.96 9592948.88 -8.62
679999.97 9592946.07 -8.62
680027.41 9592962.59 -8.69
680040.34 9592970.07 -8.62
680035.24 9592967.10 -8.62
680067.13 9592988.04 -8.69
680057.30 9592981.55 -8.62
680052.70 9592977.93 -8.62
680045.41 9592973.00 -8.62
680061.94 9592985.01 -8.54
680094.28 9592999.19 -8.62
680088.97 9592996.93 -8.62
680083.64 9592994.89 -8.62
680078.14 9592992.90 -8.62
680072.45 9592990.79 -8.62
680102.13 9593002.29 -8.69
680115.93 9593010.89 -8.62
680111.44 9593007.69 -8.62
680107.11 9593004.60 -8.54
680141.33 9593028.07 -8.62
680136.61 9593025.22 -8.62
680129.51 9593020.63 -8.62
680125.01 9593017.35 -8.62
680120.57 9593014.03 -8.62
680167.19 9593043.67 -8.62
680162.64 9593040.61 -8.62
680157.90 9593037.75 -8.62
680153.07 9593034.95 -8.62
680146.27 9593030.73 -8.62
680193.44 9593063.46 -8.62
680189.16 9593059.87 -8.62
680184.71 9593056.35 -8.62
680180.30 9593053.01 -8.62
680175.72 9593049.87 -8.62
680171.39 9593046.82 -8.62
680213.87 9593077.94 -8.62
680207.08 9593073.09 -8.62
680198.00 9593066.81 -8.62
680220.16 9593083.18 -8.54
680202.56 9593070.01 -8.54
680241.70 9593100.08 -8.62
680237.59 9593096.61 -8.62
680233.31 9593093.08 -8.54
680229.05 9593089.73 -8.54
680224.68 9593086.53 -8.54
680268.04 9593114.48 -8.62
680262.96 9593112.54 -8.62
680257.95 9593110.29 -8.62
680252.96 9593107.78 -8.54
680248.31 9593105.01 -8.54
680280.79 9593119.30 -8.69
680294.57 9593128.03 -8.62
680290.17 9593124.75 -8.62
680285.76 9593121.68 -8.62
680275.83 9593117.22 -8.62
680313.27 9593139.19 -8.69
680303.78 9593133.83 -8.69
680298.90 9593131.26 -8.69
680317.84 9593142.07 -8.62
680308.37 9593136.56 -8.62
680342.77 9593158.66 -8.69
680338.32 9593155.62 -8.69
680333.92 9593152.37 -8.69
680329.29 9593149.35 -8.69
680322.25 9593145.08 -8.69
680369.00 9593177.72 -8.70
680364.48 9593174.55 -8.70
680360.09 9593171.25 -8.70
680356.03 9593167.74 -8.70
680347.47 9593161.49 -8.69
680351.82 9593164.39 -8.63
680394.64 9593195.04 -8.78
680387.52 9593190.44 -8.78
680373.72 9593180.76 -8.78
680382.95 9593187.24 -8.70
680378.44 9593183.95 -8.70
680419.62 9593207.62 -8.85
680414.31 9593205.46 -8.78
680409.35 9593203.03 -8.78
680404.38 9593200.51 -8.78
680399.45 9593197.90 -8.78
680439.51 9593217.57 -8.85
680427.29 9593211.04 -8.85
680444.11 9593220.33 -8.78
680434.73 9593214.75 -8.78
680466.80 9593235.27 -8.85
680462.16 9593232.49 -8.85
680457.78 9593229.36 -8.85
680453.23 9593226.36 -8.85
680448.71 9593223.27 -8.85
680494.78 9593251.92 -8.93
680490.40 9593248.82 -8.93
680485.69 9593245.92 -8.93
680476.34 9593240.60 -8.93
680471.51 9593237.96 -8.93
680481.05 9593243.25 -8.85
680513.44 9593262.85 -9.00
680518.24 9593265.38 -8.93
680508.55 9593260.61 -8.93
680503.69 9593257.97 -8.93
680499.20 9593254.99 -8.93
680542.95 9593281.27 -9.00
680538.20 9593278.76 -9.00
680523.01 9593268.15 -9.00
680533.71 9593275.84 -8.93
680529.56 9593272.58 -8.93
680567.87 9593293.97 -9.08
680561.72 9593291.26 -9.00
680555.80 9593288.00 -9.00
680549.45 9593284.84 -9.00
680593.34 9593308.66 -9.08
680587.41 9593305.04 -9.08
680582.10 9593301.30 -9.08
680575.91 9593298.30 -9.08
680611.06 9593315.41 -9.15
680619.40 9593318.72 -9.15
680605.80 9593313.86 -9.15
680599.57 9593311.63 -9.08
680635.79 9593325.65 -9.23
680641.96 9593332.82 -9.15
680630.60 9593322.91 -9.15
680625.15 9593320.40 -9.15
680667.32 9593334.63 -9.38
680653.04 9593330.24 -9.30
680661.52 9593332.02 -9.23
680646.37 9593329.52 -9.23
680669.76 9593350.22 -9.15
680664.88 9593347.49 -9.15
680658.09 9593342.95 -9.15
680653.76 9593339.71 -9.15
680649.30 9593336.56 -9.15
680690.32 9593337.23 -9.30
680674.93 9593335.59 -9.30
680685.08 9593337.42 -9.23
680680.11 9593336.65 -9.23
680694.80 9593366.69 -9.15
680691.03 9593362.92 -9.15
680686.53 9593360.05 -9.15
680681.91 9593357.10 -9.15
680677.03 9593354.28 -9.15
680706.68 9593378.11 -9.23
680716.82 9593386.82 -9.15
680712.79 9593383.27 -9.15
680702.54 9593374.50 -9.15
680698.49 9593370.75 -9.15
680743.39 9593406.01 -9.15
680738.80 9593403.22 -9.15
680734.43 9593400.25 -9.15
680729.75 9593397.26 -9.15
680725.07 9593394.08 -9.15
680720.93 9593390.46 -9.15
680768.41 9593417.10 -9.23
680763.25 9593415.29 -9.23
680758.04 9593413.48 -9.23
680753.07 9593411.28 -9.23
680747.99 9593408.83 -9.23
680794.80 9593430.57 -9.23
680789.85 9593428.38 -9.23
680784.99 9593425.88 -9.23
680780.67 9593422.80 -9.23
680776.02 9593420.04 -9.23
680819.15 9593446.58 -9.23
680814.58 9593444.23 -9.23
680809.85 9593441.58 -9.23
680805.56 9593438.31 -9.23
680801.50 9593434.82 -9.23
680843.62 9593462.03 -9.30
680837.86 9593458.38 -9.30
680829.97 9593452.99 -9.30
680823.63 9593449.15 -9.23
680869.63 9593478.19 -9.30
680863.82 9593474.14 -9.30
680855.86 9593469.15 -9.30
680849.72 9593465.71 -9.30
680889.41 9593491.41 -9.38
680883.21 9593487.89 -9.30
680877.12 9593483.81 -9.30
680919.74 9593512.72 -9.38
680915.40 9593509.99 -9.30
680911.18 9593507.23 -9.30
680907.29 9593504.08 -9.30
680901.47 9593499.51 -9.30
680895.51 9593495.21 -9.30
680941.22 9593525.89 -9.38
680935.08 9593521.79 -9.38
680930.74 9593519.19 -9.38
680924.36 9593515.29 -9.38
680968.74 9593543.61 -9.45
680964.55 9593540.20 -9.45
680945.62 9593528.35 -9.45
680960.71 9593536.98 -9.38
680954.63 9593532.63 -9.38
680992.44 9593557.42 -9.45
680985.73 9593554.05 -9.45
680981.27 9593551.65 -9.45
680976.78 9593549.31 -9.45
681016.58 9593570.93 -9.53
681012.03 9593568.63 -9.53
681007.57 9593566.35 -9.53
681003.18 9593563.85 -9.45
680998.89 9593561.19 -9.45
681044.78 9593592.19 -9.53
681038.58 9593588.02 -9.53
681034.31 9593584.99 -9.53
681030.33 9593581.81 -9.53
681026.57 9593578.39 -9.53
681020.82 9593573.61 -9.45
681067.43 9593612.64 -9.60
681063.39 9593609.52 -9.53
681059.66 9593606.05 -9.53
681055.81 9593602.50 -9.53
681052.28 9593598.87 -9.53
681048.65 9593595.38 -9.53
681094.53 9593636.71 -9.60
681083.42 9593625.36 -9.60
681071.78 9593615.40 -9.60
681090.69 9593632.88 -9.53
681087.00 9593629.10 -9.53
681079.89 9593621.57 -9.53
681076.19 9593618.08 -9.53
681120.08 9593658.66 -9.60
681116.11 9593655.37 -9.60
681112.00 9593652.23 -9.60
681107.87 9593649.03 -9.60
681103.98 9593645.77 -9.60
681100.10 9593642.29 -9.60
681141.97 9593680.96 -9.60
681138.29 9593677.38 -9.60
681134.54 9593673.72 -9.60
681130.98 9593669.91 -9.60
681127.37 9593666.08 -9.60
681123.64 9593662.41 -9.60
681169.07 9593705.78 -9.68
681165.09 9593702.36 -9.68
681161.01 9593698.92 -9.68
681151.70 9593689.80 -9.68
681157.18 9593695.32 -9.60
681147.84 9593686.32 -9.60
681191.71 9593727.13 -9.68
681187.77 9593723.68 -9.68
681183.98 9593720.16 -9.68
681180.43 9593716.46 -9.68
681176.78 9593712.75 -9.68
681173.07 9593709.15 -9.68
681211.88 9593743.63 -9.75
681207.78 9593740.52 -9.68
681203.57 9593737.38 -9.68
681199.46 9593733.97 -9.68
681195.49 9593730.61 -9.68
681220.14 9593751.74 -9.60
681215.84 9593747.25 -9.60
681237.05 9593765.30 -9.68
681242.35 9593768.07 -9.60
681231.80 9593761.91 -9.60
681227.00 9593757.94 -9.60
681266.66 9593781.83 -9.68
681261.60 9593778.09 -9.68
681256.23 9593775.00 -9.68
681250.65 9593772.26 -9.68
681282.67 9593796.06 -9.68
681275.58 9593789.93 -9.68
681292.57 9593807.77 -9.60
681288.91 9593802.70 -9.60
681271.22 9593785.83 -9.60
681318.18 9593833.65 -9.60
681313.10 9593829.78 -9.60
681308.70 9593825.79 -9.60
681304.32 9593821.77 -9.60
681300.12 9593817.28 -9.60
681296.28 9593812.65 -9.60
681344.36 9593848.44 -9.68
681326.56 9593837.66 -9.68
681339.20 9593844.91 -9.60
681334.66 9593841.23 -9.60
681357.66 9593861.09 -9.68
681353.58 9593856.63 -9.68
681366.22 9593869.76 -9.60
681361.83 9593865.49 -9.60
681349.16 9593852.14 -9.60
681384.89 9593885.23 -9.68
681370.77 9593873.80 -9.68
681394.51 9593892.41 -9.60
681389.68 9593888.83 -9.60
681380.10 9593881.50 -9.60
681375.40 9593877.69 -9.60
681419.00 9593914.95 -9.68
681414.58 9593910.70 -9.60
681410.32 9593906.19 -9.60
681406.15 9593901.80 -9.60
681401.76 9593897.80 -9.60
681444.33 9593937.17 -9.60
681439.59 9593933.30 -9.60
681435.02 9593929.31 -9.60
681430.27 9593925.22 -9.60
681425.60 9593921.18 -9.60
681466.36 9593957.86 -9.60
681462.37 9593953.29 -9.60
681458.12 9593948.91 -9.60
681453.57 9593944.94 -9.60
681448.96 9593941.05 -9.60
681494.16 9593981.22 -9.60
681486.71 9593975.68 -9.60
681481.71 9593972.17 -9.60
681476.92 9593968.47 -9.60
681472.62 9593964.46 -9.60
681506.18 9593990.42 -9.60
681519.49 9594002.67 -9.53
681515.26 9593998.15 -9.53
681510.80 9593994.03 -9.53
681501.49 9593986.68 -9.53
681542.49 9594022.32 -9.53
681538.10 9594018.22 -9.53
681533.32 9594014.47 -9.53
681528.26 9594011.06 -9.53
681523.72 9594007.03 -9.53
681565.91 9594045.44 -9.53
681558.78 9594039.74 -9.53
681554.36 9594035.60 -9.53
681550.26 9594031.25 -9.53
681546.30 9594026.69 -9.53
681580.48 9594056.54 -9.45
681575.65 9594052.88 -9.45
681570.79 9594049.11 -9.45
681587.51 9594062.08 -9.38
681593.81 9594068.55 -9.08
681618.45 9594086.95 -9.00
681613.24 9594083.61 -9.00
681598.28 9594072.71 -9.00
681608.20 9594080.23 -8.93
681603.25 9594076.59 -8.93
681623.50 9594090.41 -8.85
681627.92 9594094.48 -8.78
681636.12 9594103.47 -8.70
681631.88 9594099.06 -8.70
681644.80 9594112.56 -8.63
681640.24 9594108.01 -8.63
681665.63 9594130.98 -8.70
681661.16 9594126.85 -8.63
681656.53 9594122.86 -8.63
681651.70 9594118.85 -8.63
681669.48 9594135.73 -8.55
681673.47 9594140.15 -8.70
681677.61 9594144.73 -8.55
681693.40 9594159.35 -8.18
681682.01 9594148.98 -8.18
681688.76 9594155.34 -8.10
681718.93 9594181.44 -8.63
681714.54 9594177.20 -8.63
681709.95 9594173.12 -8.63
681705.19 9594169.17 -8.55
681700.49 9594165.08 -8.48
681723.29 9594185.68 -8.63
681743.99 9594203.62 -8.55
681737.04 9594197.78 -8.55
681732.33 9594194.04 -8.55
681727.76 9594189.87 -8.55
681769.40 9594226.31 -9.00
681764.83 9594222.21 -8.93
681760.20 9594218.00 -8.93
681755.50 9594213.96 -8.78
681750.71 9594209.95 -8.70
681794.43 9594248.74 -9.83
681789.81 9594244.68 -9.60
681785.25 9594240.63 -9.45
681780.82 9594236.43 -9.30
681776.36 9594232.11 -9.23
681801.65 9594254.64 -9.98
681810.95 9594262.62 -9.90
681806.32 9594258.43 -9.90
681815.45 9594266.76 -9.83
681843.88 9594290.23 -9.68
681838.86 9594286.72 -9.68
681834.03 9594283.09 -9.68
681829.26 9594279.17 -9.68
681822.18 9594273.28 -9.68
681869.71 9594323.70 -9.75
681866.79 9594318.24 -9.75
681863.96 9594312.92 -9.68
681860.38 9594308.07 -9.68
681856.33 9594303.55 -9.60
681852.57 9594298.77 -9.60
681848.70 9594294.19 -9.60
681873.03 9594329.08 -9.68
681885.27 9594342.53 -9.60
681880.78 9594338.46 -9.60
681876.67 9594333.96 -9.60
681891.50 9594349.10 -9.53
681920.11 9594384.07 -9.53
681916.14 9594379.71 -9.53
681912.21 9594375.14 -9.53
681908.48 9594370.42 -9.53
681904.82 9594365.60 -9.53
681901.16 9594360.87 -9.53
681897.25 9594356.07 -9.53
681942.56 9594413.16 -9.60
681939.28 9594408.51 -9.53
681935.80 9594404.04 -9.53
681932.32 9594399.59 -9.53
681925.67 9594390.79 -9.53
681929.09 9594395.21 -9.45
681954.88 9594432.50 -9.68
681969.00 9594450.72 -9.60
681964.78 9594446.48 -9.60
681961.13 9594441.98 -9.60
681957.94 9594437.45 -9.60
681951.85 9594427.40 -9.60
681948.89 9594422.52 -9.60
681945.84 9594417.76 -9.60
681994.88 9594485.51 -9.60
681990.04 9594478.26 -9.60
681972.97 9594454.94 -9.60
681986.90 9594473.35 -9.53
681983.72 9594468.28 -9.53
681978.67 9594461.22 -9.53
682017.45 9594512.56 -9.90
682013.53 9594507.91 -9.90
682009.81 9594503.46 -9.68
681998.42 9594490.03 -9.60
682006.08 9594498.97 -9.45
682002.22 9594494.49 -9.45
682024.78 9594521.48 -9.98
682021.21 9594517.06 -9.90
682031.63 9594530.79 -9.75
682028.25 9594526.13 -9.75
682035.04 9594535.55 -9.54
682043.78 9594547.26 -9.39
682040.20 9594542.67 -9.31
682067.21 9594595.46 -9.91
682063.77 9594590.52 -9.84
682061.95 9594584.96 -9.84
682059.89 9594579.01 -9.84
682057.19 9594573.50 -9.69
682054.34 9594568.00 -9.61
682051.90 9594562.52 -9.31
682049.79 9594556.95 -9.31
682047.18 9594551.89 -9.16
682083.78 9594613.39 -10.06
682093.56 9594624.40 -9.99
682089.69 9594619.91 -9.99
682079.49 9594608.85 -9.91
682075.31 9594604.44 -9.91
682071.13 9594600.08 -9.91
682102.50 9594635.99 -10.06
682097.23 9594628.88 -10.06
682113.75 9594649.68 -9.99
682109.60 9594645.37 -9.99
682105.87 9594640.77 -9.99
682118.26 9594653.65 -9.84
682126.70 9594661.64 -9.69
682122.57 9594657.61 -9.69
682130.77 9594665.86 -9.61
682134.80 9594670.34 -9.39
682142.03 9594679.45 -9.31
682138.51 9594674.90 -9.31
682167.26 9594715.97 -9.61
682163.57 9594711.32 -9.46
682149.01 9594689.09 -9.46
682160.24 9594706.43 -9.39
682145.49 9594684.21 -9.39
682152.22 9594694.09 -9.24
682156.94 9594701.51 -8.86
682182.04 9594738.93 -10.06
